//X,Y,Z,intensity,ping_no
-254.12753296,110.51339722,-7.69088078,-510.000000,23.000000
-254.10833740,110.56082916,-7.69533157,-510.000000,23.000000
-254.08943176,110.60755920,-7.69931698,-510.000000,23.000000
-254.07022095,110.65504456,-7.70296144,-510.000000,23.000000
-254.05128479,110.70182800,-7.70615339,-510.000000,23.000000
-254.03204346,110.74936676,-7.70899057,-510.000000,23.000000
-254.01246643,110.79763794,-7.69304991,-510.000000,23.000000
-253.99298096,110.84566498,-7.67669058,-510.000000,23.000000
-253.97360229,110.89342499,-7.65991592,-510.000000,23.000000
-253.95449829,110.94061279,-7.66111469,-510.000000,23.000000
-253.93539429,110.98780823,-7.66190910,-510.000000,23.000000
-253.91629028,111.03500366,-7.66230059,-510.000000,23.000000
-253.89717102,111.08220673,-7.66228628,-510.000000,23.000000
-253.87806702,111.12940216,-7.66186905,-510.000000,23.000000
-253.85896301,111.17659760,-7.66104746,-510.000000,23.000000
-253.84014893,111.22305298,-7.65984344,-510.000000,23.000000
-253.82104492,111.27022552,-7.65822077,-510.000000,23.000000
-253.80224609,111.31666565,-7.65622807,-510.000000,23.000000
-253.78315735,111.36380768,-7.65380383,-510.000000,23.000000
-253.76406860,111.41092682,-7.65097570,-510.000000,23.000000
-253.74499512,111.45803070,-7.64774466,-510.000000,23.000000
-253.72592163,111.50510406,-7.64411068,-510.000000,23.000000
-253.70657349,111.55287933,-7.64000797,-510.000000,23.000000
-253.68693542,111.60146332,-7.65387392,-510.000000,23.000000
-253.66755676,111.64930725,-7.64893341,-510.000000,23.000000
-253.64778137,111.69822693,-7.66194439,-510.000000,23.000000
-253.62838745,111.74611664,-7.65616322,-510.000000,23.000000
-253.60928345,111.79324341,-7.65006304,-510.000000,23.000000
-253.58992004,111.84104919,-7.64345598,-510.000000,23.000000
-253.57086182,111.88807678,-7.63654327,-510.000000,23.000000
-253.55152893,111.93577576,-7.62911272,-510.000000,23.000000
-253.53251648,111.98269653,-7.62138891,-510.000000,23.000000
-253.51322937,112.03028107,-7.61313629,-510.000000,23.000000
-253.49426270,112.07707977,-7.60460424,-510.000000,23.000000
-253.47473145,112.12524414,-7.59539080,-510.000000,23.000000
-253.45428467,112.17582703,-7.60396528,-510.000000,23.000000
-253.43345642,112.22731781,-7.61191750,-510.000000,23.000000
-253.41284180,112.27828217,-7.61954689,-510.000000,23.000000
-253.39186096,112.33016205,-7.62653399,-510.000000,23.000000
-253.37109375,112.38150787,-7.63320637,-510.000000,23.000000
-253.34996033,112.43375397,-7.63921785,-510.000000,23.000000
-253.32904053,112.48545837,-7.64492130,-510.000000,23.000000
-253.30909729,112.53463745,-7.63190889,-510.000000,23.000000
-253.28779602,112.58728027,-7.63646173,-510.000000,23.000000
-253.26788330,112.63639069,-7.62253809,-510.000000,23.000000
-253.24649048,112.68922424,-7.62611485,-510.000000,23.000000
-253.22476196,112.74294281,-7.62896299,-510.000000,23.000000
-253.20324707,112.79608917,-7.63151646,-510.000000,23.000000
-253.18138123,112.85011292,-7.63332224,-510.000000,23.000000
-253.15773010,112.90864563,-7.65239763,-510.000000,23.000000
-253.13746643,112.95858765,-7.63534546,-510.000000,23.000000
-253.11514282,113.01375580,-7.63529921,-510.000000,23.000000
-253.09492493,113.06356812,-7.61729193,-510.000000,23.000000
-253.07254028,113.11886597,-7.61619282,-510.000000,23.000000
-253.05209351,113.16923523,-7.59695339,-510.000000,23.000000
-253.02966309,113.22463989,-7.59479046,-510.000000,23.000000
-253.00927734,113.27484131,-7.57457542,-510.000000,23.000000
-252.98680115,113.33033752,-7.57134247,-510.000000,23.000000
-252.96621704,113.38105774,-7.54984903,-510.000000,23.000000
-252.94342041,113.43733978,-7.54522228,-510.000000,23.000000
-252.92291260,113.48783875,-7.52272797,-510.000000,23.000000
-252.90008545,113.54417419,-7.51699543,-510.000000,23.000000
-252.87666321,113.60201263,-7.51001120,-510.000000,23.000000
-252.85348511,113.65921783,-7.50275612,-510.000000,23.000000
-252.82998657,113.71720886,-7.49455023,-510.000000,23.000000
-252.80384827,113.78181458,-7.50272751,-510.000000,23.000000
-252.77700806,113.84817505,-7.50942898,-510.000000,23.000000
-252.75001526,113.91485596,-7.51534891,-510.000000,23.000000
-252.72291565,113.98184967,-7.52048254,-510.000000,23.000000
-252.69255066,114.05696869,-7.54117680,-510.000000,23.000000
-252.66139221,114.13408661,-7.56011152,-510.000000,23.000000
-252.63027954,114.21105194,-7.57846260,-510.000000,23.000000
-252.59864807,114.28929901,-7.59539890,-510.000000,23.000000
-252.56707764,114.36737061,-7.61175346,-510.000000,23.000000
-252.54150391,114.43043518,-7.59430075,-510.000000,23.000000
-252.51593018,114.49349213,-7.57613134,-510.000000,23.000000
-252.49035645,114.55651855,-7.55724573,-510.000000,23.000000
-252.46481323,114.61951447,-7.53764057,-510.000000,23.000000
-252.44230652,114.67485809,-7.50076103,-510.000000,23.000000
-252.42021179,114.72917175,-7.46379709,-510.000000,23.000000
-252.39797974,114.78385162,-7.42579365,-510.000000,23.000000
-252.37237549,114.84694672,-7.40304613,-510.000000,23.000000
-252.32676697,114.95995331,-7.45413494,-510.000000,23.000000
-252.28062439,115.07424164,-7.50342321,-510.000000,23.000000
-252.23397827,115.18978882,-7.55088806,-510.000000,23.000000
-252.18681335,115.30657196,-7.59650660,-510.000000,23.000000
-252.15046692,115.39634705,-7.59413242,-510.000000,23.000000
-252.11012268,115.49605560,-7.60571575,-510.000000,23.000000
-252.07341003,115.58673096,-7.60060024,-510.000000,23.000000
-252.03260803,115.68757629,-7.60922527,-510.000000,23.000000
-251.99066162,115.79119110,-7.61443377,-510.000000,23.000000
-251.94848633,115.89540100,-7.61800003,-510.000000,23.000000
-251.90606689,116.00018311,-7.61991405,-510.000000,23.000000
-251.85897827,116.11660004,-7.63414335,-510.000000,23.000000
-251.81489563,116.22547913,-7.62986612,-510.000000,23.000000
-251.76631165,116.34551239,-7.63820076,-510.000000,23.000000
-251.72175598,116.45552063,-7.63018322,-510.000000,23.000000
-251.67263794,116.57689667,-7.63451242,-510.000000,23.000000
-251.62677002,116.69009399,-7.62047434,-510.000000,23.000000
-251.57595825,116.81558990,-7.61765957,-510.000000,23.000000
-251.52487183,116.94173431,-7.61259937,-510.000000,23.000000
-251.47354126,117.06848907,-7.60527849,-510.000000,23.000000
-251.40563965,117.23637390,-7.62979317,-510.000000,23.000000
-251.33216858,117.41808319,-7.66345978,-510.000000,23.000000
-251.26310730,117.58877563,-7.68096209,-510.000000,23.000000
-251.18841553,117.77346802,-7.70723009,-510.000000,23.000000
-251.11648560,117.95114899,-7.71214533,-510.000000,23.000000
-251.03915405,118.14227295,-7.72606945,-510.000000,23.000000
-250.96624756,118.32234955,-7.72317266,-510.000000,23.000000
-250.88786316,118.51600647,-7.72891855,-510.000000,23.000000
-250.78494263,118.77046204,-7.76776075,-510.000000,23.000000
-250.67564392,119.04074860,-7.81152391,-510.000000,23.000000
-250.56532288,119.31348419,-7.84860516,-510.000000,23.000000
-250.45405579,119.58853912,-7.87894201,-510.000000,23.000000
-250.34472656,119.85858154,-7.88149548,-510.000000,23.000000
-250.23464966,120.13044739,-7.87695599,-510.000000,23.000000
-250.12388611,120.40399933,-7.86526966,-510.000000,23.000000
-250.01245117,120.67910767,-7.84637785,-510.000000,23.000000
-257.53765869,102.40193176,-8.19846630,-510.000000,24.000000
-257.44451904,102.63209534,-8.19208717,-510.000000,24.000000
-257.35168457,102.86151886,-8.18170738,-510.000000,24.000000
-257.25979614,103.08854675,-8.16517067,-510.000000,24.000000
-257.16827393,103.31467438,-8.14465332,-510.000000,24.000000
-257.08459473,103.52132416,-8.12499905,-510.000000,24.000000
-257.00680542,103.71355438,-8.11306858,-510.000000,24.000000
-256.92956543,103.90442657,-8.09720802,-510.000000,24.000000
-256.85284424,104.09390259,-8.07744980,-510.000000,24.000000
-256.78335571,104.26556396,-8.06184006,-510.000000,24.000000
-256.71939087,104.42364502,-8.05559158,-510.000000,24.000000
-256.65582275,104.58071899,-8.04638672,-510.000000,24.000000
-256.59268188,104.73674011,-8.03424454,-510.000000,24.000000
-256.53118896,104.88860321,-8.01592636,-510.000000,24.000000
-256.46981812,105.04012299,-7.99567938,-510.000000,24.000000
-256.40921021,105.18972015,-7.97191477,-510.000000,24.000000
-256.34875488,105.33889771,-7.94622993,-510.000000,24.000000
-256.29937744,105.46096039,-7.94214869,-510.000000,24.000000
-256.25027466,105.58231354,-7.93606615,-510.000000,24.000000
-256.20144653,105.70294189,-7.92799664,-510.000000,24.000000
-256.15747070,105.81177521,-7.93195677,-510.000000,24.000000
-256.11010742,105.92872620,-7.91804171,-510.000000,24.000000
-256.06716919,106.03486633,-7.91718340,-510.000000,24.000000
-256.02474976,106.13970184,-7.91404390,-510.000000,24.000000
-255.98226929,106.24472046,-7.90995359,-510.000000,24.000000
-255.94941711,106.32614899,-7.93154764,-510.000000,24.000000
-255.91661072,106.40750885,-7.95206594,-510.000000,24.000000
-255.88381958,106.48877716,-7.97151089,-510.000000,24.000000
-255.85105896,106.56994629,-7.98988867,-510.000000,24.000000
-255.81120300,106.66837311,-7.97543812,-510.000000,24.000000
-255.77128601,106.76690674,-7.96016312,-510.000000,24.000000
-255.73193359,106.86399841,-7.94292259,-510.000000,24.000000
-255.69256592,106.96116638,-7.92485619,-510.000000,24.000000
-255.64260864,107.08402252,-7.85816288,-510.000000,24.000000
-255.59324646,107.20536041,-7.78959131,-510.000000,24.000000
-255.54449463,107.32517242,-7.71916962,-510.000000,24.000000
-255.49636841,107.44342804,-7.64692068,-510.000000,24.000000
-255.47473145,107.49729156,-7.68221998,-510.000000,24.000000
-255.45268250,107.55217743,-7.71745968,-510.000000,24.000000
-255.43080139,107.60662842,-7.75169706,-510.000000,24.000000
-255.40850830,107.66210175,-7.78585482,-510.000000,24.000000
-255.37310791,107.74929810,-7.75422430,-510.000000,24.000000
-255.34136963,107.82760620,-7.73760796,-510.000000,24.000000
-255.30656433,107.91333008,-7.70376253,-510.000000,24.000000
-255.27531433,107.99040222,-7.68511009,-510.000000,24.000000
-255.25123596,108.05005646,-7.69748163,-510.000000,24.000000
-255.23001099,108.10283661,-7.72608042,-510.000000,24.000000
-255.20898438,108.15511322,-7.75379229,-510.000000,24.000000
-255.18756104,108.20835114,-7.78139400,-510.000000,24.000000
-255.15774536,108.28182220,-7.75772667,-510.000000,24.000000
-255.12786865,108.35543823,-7.73354721,-510.000000,24.000000
-255.09854126,108.42771912,-7.70813274,-510.000000,24.000000
-255.07194519,108.49336243,-7.69907141,-510.000000,24.000000
-255.04609680,108.55718994,-7.68860388,-510.000000,24.000000
-255.02008057,108.62140656,-7.67776346,-510.000000,24.000000
-254.99449158,108.68453217,-7.66589355,-510.000000,24.000000
-254.97135925,108.74179077,-7.67075205,-510.000000,24.000000
-254.94854736,108.79822540,-7.67472267,-510.000000,24.000000
-254.92578125,108.85455322,-7.67812586,-510.000000,24.000000
-254.90306091,108.91076660,-7.68096399,-510.000000,24.000000
-254.88275146,108.96117401,-7.70056200,-510.000000,24.000000
-254.86065674,109.01583099,-7.70177937,-510.000000,24.000000
-254.84057617,109.06565857,-7.72015524,-510.000000,24.000000
-254.81852722,109.12018585,-7.72035503,-510.000000,24.000000
-254.79838562,109.17015839,-7.73779631,-510.000000,24.000000
-254.77638245,109.22454834,-7.73698044,-510.000000,24.000000
-254.75415039,109.27953339,-7.73587942,-510.000000,24.000000
-254.73225403,109.33363342,-7.73401165,-510.000000,24.000000
-254.71206665,109.38369751,-7.74954176,-510.000000,24.000000
-254.68865967,109.44137573,-7.72872162,-510.000000,24.000000
-254.66694641,109.49501038,-7.72530508,-510.000000,24.000000
-254.64382935,109.55197144,-7.70336390,-510.000000,24.000000
-254.62229919,109.60514069,-7.69889832,-510.000000,24.000000
-254.60113525,109.65740967,-7.69373751,-510.000000,24.000000
-254.58137512,109.70642090,-7.70618725,-510.000000,24.000000
-254.56185913,109.75478363,-7.71802759,-510.000000,24.000000
-254.54200745,109.80397034,-7.72961712,-510.000000,24.000000
-254.51982117,109.85859680,-7.70442629,-510.000000,24.000000
-254.49890137,109.91022491,-7.69690466,-510.000000,24.000000
-254.47836304,109.96092987,-7.68875790,-510.000000,24.000000
-254.45761108,110.01216125,-7.68029261,-510.000000,24.000000
-254.43722534,110.06246948,-7.67122030,-510.000000,24.000000
-254.41781616,110.11055756,-7.67996788,-510.000000,24.000000
-254.39866638,110.15798187,-7.68817377,-510.000000,24.000000
-254.37919617,110.20619202,-7.69609022,-510.000000,24.000000
-254.36000061,110.25373077,-7.70347738,-510.000000,24.000000
-254.34048462,110.30205536,-7.71056128,-510.000000,24.000000
-254.32124329,110.34969330,-7.71712780,-510.000000,24.000000
-254.30169678,110.39810944,-7.72337818,-510.000000,24.000000
-254.28161621,110.44763947,-7.71083975,-510.000000,24.000000
-254.26235962,110.49526978,-7.71615982,-510.000000,24.000000
-254.24310303,110.54294586,-7.72107220,-510.000000,24.000000
-254.22383118,110.59065247,-7.72557735,-510.000000,24.000000
-254.20425415,110.63891602,-7.71127653,-510.000000,24.000000
-254.18499756,110.68654633,-7.71495962,-510.000000,24.000000
-254.16604614,110.73346710,-7.71818829,-510.000000,24.000000
-254.14677429,110.78114319,-7.72106218,-510.000000,24.000000
-254.12748718,110.82883453,-7.72352791,-510.000000,24.000000
-254.10820007,110.87654877,-7.72558546,-510.000000,24.000000
-254.08891296,110.92427063,-7.72723484,-510.000000,24.000000
-254.06961060,110.97200775,-7.72847509,-510.000000,24.000000
-254.05015564,111.01992798,-7.71092033,-510.000000,24.000000
-254.03089905,111.06754303,-7.71134233,-510.000000,24.000000
-254.01159668,111.11506653,-7.69296885,-510.000000,24.000000
-253.99240112,111.16253662,-7.69257784,-510.000000,24.000000
-253.97319031,111.21000671,-7.69177961,-510.000000,24.000000
-253.95428467,111.25673676,-7.69059658,-510.000000,24.000000
-253.93508911,111.30419159,-7.68899250,-510.000000,24.000000
-253.91619873,111.35089874,-7.68701649,-510.000000,24.000000
-253.89729309,111.39742279,-7.66624165,-510.000000,24.000000
-253.87815857,111.44468689,-7.66343355,-510.000000,24.000000
-253.85903931,111.49192810,-7.66022158,-510.000000,24.000000
-253.83993530,111.53914642,-7.65660477,-510.000000,24.000000
-253.82054138,111.58705902,-7.65251970,-510.000000,24.000000
-253.80145264,111.63421631,-7.64808893,-510.000000,24.000000
-253.78207397,111.68206024,-7.64317703,-510.000000,24.000000
-253.76301575,111.72914886,-7.63793373,-510.000000,24.000000
-253.74366760,111.77690887,-7.63219738,-510.000000,24.000000
-253.72463989,111.82391357,-7.62614250,-510.000000,24.000000
-253.70532227,111.87158203,-7.61958218,-510.000000,24.000000
-253.68632507,111.91848755,-7.61271715,-510.000000,24.000000
-253.66706848,111.96605682,-7.60533619,-510.000000,24.000000
-253.64810181,112.01284790,-7.59766245,-510.000000,24.000000
-253.62887573,112.06030273,-7.58946133,-510.000000,24.000000
-253.60885620,112.10989380,-7.59910250,-510.000000,24.000000
-253.58818054,112.16113281,-7.60801220,-510.000000,24.000000
-253.56770325,112.21185303,-7.61659002,-510.000000,24.000000
-253.54684448,112.26348877,-7.62454414,-510.000000,24.000000
-253.52488708,112.31806946,-7.65018415,-510.000000,24.000000
-253.50520325,112.36662292,-7.63916206,-510.000000,24.000000
-253.48440552,112.41810608,-7.64583254,-510.000000,24.000000
-253.46473694,112.46662140,-7.63392782,-510.000000,24.000000
-253.44384766,112.51833344,-7.63966227,-510.000000,24.000000
-253.42388916,112.56752014,-7.62667894,-510.000000,24.000000
-253.40261841,112.62017059,-7.63126278,-510.000000,24.000000
-253.38269043,112.66928864,-7.61736870,-510.000000,24.000000
-253.36134338,112.72212982,-7.62097645,-510.000000,24.000000
-253.33779907,112.78054047,-7.64154434,-510.000000,24.000000
-253.31437683,112.83864594,-7.66173315,-510.000000,24.000000
-253.29049683,112.89790344,-7.68108606,-510.000000,24.000000
-253.26673889,112.95684814,-7.70006371,-510.000000,24.000000
-253.24629211,113.00720978,-7.68290091,-510.000000,24.000000
-253.22590637,113.05743408,-7.66528082,-510.000000,24.000000
-253.20558167,113.10752106,-7.64720583,-510.000000,24.000000
-253.18310547,113.16309357,-7.64603901,-510.000000,24.000000
-253.16253662,113.21375275,-7.62672424,-510.000000,24.000000
-253.13999939,113.26943207,-7.62448835,-510.000000,24.000000
-253.11712646,113.32595062,-7.62139750,-510.000000,24.000000
-253.09449768,113.38185883,-7.61803246,-510.000000,24.000000
-253.07373047,113.43299866,-7.59639406,-510.000000,24.000000
-253.05078125,113.48969269,-7.59162474,-510.000000,24.000000
-253.03009033,113.54061890,-7.56897926,-510.000000,24.000000
-253.00712585,113.59735870,-7.56309700,-510.000000,24.000000
-252.98353577,113.65561676,-7.55595398,-510.000000,24.000000
-252.96018982,113.71323395,-7.54853964,-510.000000,24.000000
-252.93653870,113.77163696,-7.54016781,-510.000000,24.000000
-252.91027832,113.83666229,-7.54818296,-510.000000,24.000000
-252.88330078,113.90343475,-7.55471277,-510.000000,24.000000
-252.85319519,113.97807312,-7.57696342,-510.000000,24.000000
-252.82589722,114.04562378,-7.58184528,-510.000000,24.000000
-252.79537964,114.12129211,-7.60228729,-510.000000,24.000000
-252.77033997,114.18308258,-7.58839560,-510.000000,24.000000
-252.74237061,114.25225067,-7.59043264,-510.000000,24.000000
-252.71398926,114.32242584,-7.59121227,-510.000000,24.000000
-252.68579102,114.39215088,-7.59157085,-510.000000,24.000000
-252.66363525,114.44660187,-7.55828094,-510.000000,24.000000
-252.64158630,114.50075531,-7.52444744,-510.000000,24.000000
-252.61965942,114.55461884,-7.49007320,-510.000000,24.000000
-252.59785461,114.60818481,-7.45516014,-510.000000,24.000000
-252.57200623,114.67188263,-7.43437910,-510.000000,24.000000
-252.54281616,114.74401093,-7.42884445,-510.000000,24.000000
-252.51695251,114.80773926,-7.40648174,-510.000000,24.000000
-252.48762512,114.88014984,-7.39919186,-510.000000,24.000000
-252.44975281,114.97400665,-7.41989899,-510.000000,24.000000
-252.41157532,115.06860352,-7.43921185,-510.000000,24.000000
-252.37310791,115.16390991,-7.45711517,-510.000000,24.000000
-252.33036804,115.26989746,-7.48851347,-510.000000,24.000000
-252.29040527,115.36884308,-7.50176620,-510.000000,24.000000
-252.25045776,115.46775055,-7.51406813,-510.000000,24.000000
-252.20994568,115.56801605,-7.52426720,-510.000000,24.000000
-252.16526794,115.67874146,-7.54798603,-510.000000,24.000000
-252.12359619,115.78181458,-7.55373049,-510.000000,24.000000
-252.07737732,115.89630890,-7.57207155,-510.000000,24.000000
-252.03079224,116.01164246,-7.58852291,-510.000000,24.000000
-251.98387146,116.12780762,-7.60306740,-510.000000,24.000000
-251.93992615,116.23642731,-7.59911728,-510.000000,24.000000
-251.89605713,116.34483337,-7.59405708,-510.000000,24.000000
-251.85169983,116.45445251,-7.58650684,-510.000000,24.000000
-251.80278015,116.57543945,-7.59130907,-510.000000,24.000000
-251.74769592,116.71177673,-7.60439777,-510.000000,24.000000
-251.68745422,116.86097717,-7.62814856,-510.000000,24.000000
-251.63153076,116.99932861,-7.63604784,-510.000000,24.000000
-251.57037354,117.15073395,-7.65427494,-510.000000,24.000000
-251.50233459,117.31919861,-7.67826509,-510.000000,24.000000
-251.43373108,117.48902893,-7.69883776,-510.000000,24.000000
-251.36459351,117.66016388,-7.71596289,-510.000000,24.000000
-251.29492188,117.83255005,-7.72960854,-510.000000,24.000000
-251.23843384,117.97191620,-7.69806194,-510.000000,24.000000
-251.17687988,118.12388611,-7.67657375,-510.000000,24.000000
-251.12007141,118.26398468,-7.63932467,-510.000000,24.000000
-251.05812073,118.41687775,-7.61179018,-510.000000,24.000000
-250.97207642,118.62966156,-7.61865902,-510.000000,24.000000
-250.88543701,118.84391022,-7.62049389,-510.000000,24.000000
-250.79821777,119.05952454,-7.61725092,-510.000000,24.000000
-250.71046448,119.27642822,-7.60889387,-510.000000,24.000000
-250.59149170,119.57089996,-7.63813639,-510.000000,24.000000
-250.46582031,119.88194275,-7.66978645,-510.000000,24.000000
-250.33908081,120.19557190,-7.69300699,-510.000000,24.000000
-250.21131897,120.51161957,-7.70772028,-510.000000,24.000000
-257.64215088,102.40689087,-8.21124268,-510.000000,25.000000
-257.52157593,102.70515442,-8.14958191,-510.000000,25.000000
-257.40179443,103.00137329,-8.08208942,-510.000000,25.000000
-257.28347778,103.29386139,-8.00665379,-510.000000,25.000000
-257.17141724,103.57091522,-7.93712664,-510.000000,25.000000
-257.11010742,103.72339630,-7.96207333,-510.000000,25.000000
-257.05429077,103.86246490,-7.99609327,-510.000000,25.000000
-256.99334717,104.01397705,-8.01533699,-510.000000,25.000000
-256.93780518,104.15225220,-8.04401493,-510.000000,25.000000
-256.87881470,104.29875946,-8.05312538,-510.000000,25.000000
-256.82516479,104.43220520,-8.07220268,-510.000000,25.000000
-256.76669312,104.57740021,-8.07612419,-510.000000,25.000000
-256.71343994,104.70972443,-8.09034252,-510.000000,25.000000
-256.64697266,104.87425995,-8.05967617,-510.000000,25.000000
-256.58068848,105.03820801,-8.02680206,-510.000000,25.000000
-256.51528931,105.19996643,-7.99012423,-510.000000,25.000000
-256.45489502,105.34947205,-7.96474648,-510.000000,25.000000
-256.41024780,105.46043396,-7.97457361,-510.000000,25.000000
-256.36575317,105.57094574,-7.98265028,-510.000000,25.000000
-256.32144165,105.68099976,-7.98898697,-510.000000,25.000000
-256.28186035,105.77954102,-8.00759315,-510.000000,25.000000
-256.23431396,105.89732361,-7.99441767,-510.000000,25.000000
-256.18676758,106.01509094,-7.98005724,-510.000000,25.000000
-256.13983154,106.13127136,-7.96316814,-510.000000,25.000000
-256.09725952,106.23687744,-7.95956469,-510.000000,25.000000
-256.04302979,106.37071228,-7.90872288,-510.000000,25.000000
-255.98933411,106.50313568,-7.85571337,-510.000000,25.000000
-255.93620300,106.63414001,-7.80055761,-510.000000,25.000000
-255.88775635,106.75372314,-7.75818491,-510.000000,25.000000
-255.84877014,106.85023499,-7.74224758,-510.000000,25.000000
-255.80975342,106.94681549,-7.72548628,-510.000000,25.000000
-255.77130127,107.04196930,-7.70679951,-510.000000,25.000000
-255.73281860,107.13715363,-7.68728733,-510.000000,25.000000
-255.70672607,107.20225525,-7.71156263,-510.000000,25.000000
-255.68440247,107.25827026,-7.75057745,-510.000000,25.000000
-255.66192627,107.31461334,-7.78903151,-510.000000,25.000000
-255.63932800,107.37128448,-7.82692051,-510.000000,25.000000
-255.60267639,107.46183777,-7.80025911,-510.000000,25.000000
-255.56602478,107.55237579,-7.77284718,-510.000000,25.000000
-255.52996826,107.64138794,-7.74374294,-510.000000,25.000000
-255.49394226,107.73036194,-7.71389055,-510.000000,25.000000
-255.46221924,107.80883026,-7.69804621,-510.000000,25.000000
-255.43408203,107.87866974,-7.69737530,-510.000000,25.000000
-255.40272522,107.95619202,-7.67963696,-510.000000,25.000000
-255.37484741,108.02532959,-7.67724371,-510.000000,25.000000
-255.35408020,108.07732391,-7.70601892,-510.000000,25.000000
-255.33291626,108.13027954,-7.73470259,-510.000000,25.000000
-255.31195068,108.18273163,-7.76249647,-510.000000,25.000000
-255.29058838,108.23614502,-7.79018021,-510.000000,25.000000
-255.26675415,108.29544830,-7.79993868,-510.000000,25.000000
-255.24557495,108.34841156,-7.82618761,-510.000000,25.000000
-255.22460938,108.40083313,-7.85158253,-510.000000,25.000000
-255.20324707,108.45420837,-7.87684631,-510.000000,25.000000
-255.17132568,108.53277588,-7.83321095,-510.000000,25.000000
-255.13945007,108.61121368,-7.78895521,-510.000000,25.000000
-255.10821533,108.68801117,-7.74341822,-510.000000,25.000000
-255.07705688,108.76465607,-7.69726563,-510.000000,25.000000
-255.05421448,108.82138824,-7.70136213,-510.000000,25.000000
-255.03141785,108.87801361,-7.70488739,-510.000000,25.000000
-255.00866699,108.93452454,-7.70784616,-510.000000,25.000000
-254.98596191,108.99092865,-7.71023798,-510.000000,25.000000
-254.96621704,109.04018402,-7.72889042,-510.000000,25.000000
-254.94613647,109.09031677,-7.74737692,-510.000000,25.000000
-254.92628479,109.13985443,-7.76515245,-510.000000,25.000000
-254.90826416,109.18511200,-7.80026197,-510.000000,25.000000
-254.88398743,109.24507904,-7.78207827,-510.000000,25.000000
-254.85957336,109.30538177,-7.76351738,-510.000000,25.000000
-254.83561707,109.36452484,-7.74409819,-510.000000,25.000000
-254.81153870,109.42398834,-7.72429895,-510.000000,25.000000
-254.78820801,109.48155212,-7.70345259,-510.000000,25.000000
-254.76475525,109.53942871,-7.68223810,-510.000000,25.000000
-254.74177551,109.59613800,-7.66023588,-510.000000,25.000000
-254.72041321,109.64906311,-7.65570784,-510.000000,25.000000
-254.69941711,109.70108795,-7.65048933,-510.000000,25.000000
-254.67984009,109.74985504,-7.66288137,-510.000000,25.000000
-254.66052246,109.79798889,-7.67466688,-510.000000,25.000000
-254.64086914,109.84693146,-7.68620348,-510.000000,25.000000
-254.62028503,109.89790344,-7.67897320,-510.000000,25.000000
-254.60090637,109.94614410,-7.68947363,-510.000000,25.000000
-254.58180237,109.99372864,-7.69940376,-510.000000,25.000000
-254.56234741,110.04212189,-7.70907116,-510.000000,25.000000
-254.54191589,110.09271240,-7.70006180,-510.000000,25.000000
-254.52246094,110.14110565,-7.70886946,-510.000000,25.000000
-254.50213623,110.19142151,-7.69896603,-510.000000,25.000000
-254.48268127,110.23979950,-7.70691538,-510.000000,25.000000
-254.46246338,110.28982544,-7.69612360,-510.000000,25.000000
-254.44201660,110.34037018,-7.68498945,-510.000000,25.000000
-254.42196655,110.38996887,-7.67329931,-510.000000,25.000000
-254.40258789,110.43814087,-7.67952490,-510.000000,25.000000
-254.38348389,110.48562622,-7.68524742,-510.000000,25.000000
-254.36436462,110.53315735,-7.69056320,-510.000000,25.000000
-254.34523010,110.58071899,-7.69547272,-510.000000,25.000000
-254.32675171,110.62693024,-7.71829987,-510.000000,25.000000
-254.30783081,110.67396545,-7.72234631,-510.000000,25.000000
-254.28858948,110.72175598,-7.72605038,-510.000000,25.000000
-254.26963806,110.76883698,-7.72929859,-510.000000,25.000000
-254.25038147,110.81667328,-7.73219204,-510.000000,25.000000
-254.23071289,110.86524200,-7.71630478,-510.000000,25.000000
-254.21148682,110.91297913,-7.71837282,-510.000000,25.000000
-254.19226074,110.96073151,-7.72003317,-510.000000,25.000000
-254.17301941,111.00849152,-7.72128439,-510.000000,25.000000
-254.15377808,111.05625153,-7.72212744,-510.000000,25.000000
-254.13452148,111.10402679,-7.72256136,-510.000000,25.000000
-254.11528015,111.15179443,-7.72258663,-510.000000,25.000000
-254.09602356,111.19956970,-7.72220421,-510.000000,25.000000
-254.07681274,111.24696350,-7.70302773,-510.000000,25.000000
-254.05790710,111.29384613,-7.70185184,-510.000000,25.000000
-254.03871155,111.34146118,-7.70025396,-510.000000,25.000000
-254.01982117,111.38832092,-7.69828272,-510.000000,25.000000
-254.00062561,111.43589783,-7.69587708,-510.000000,25.000000
-253.98144531,111.48345947,-7.69306374,-510.000000,25.000000
-253.96228027,111.53099823,-7.68984413,-510.000000,25.000000
-253.94311523,111.57850647,-7.68621731,-510.000000,25.000000
-253.92366028,111.62671661,-7.68211937,-510.000000,25.000000
-253.90451050,111.67416382,-7.67767477,-510.000000,25.000000
-253.88508606,111.72230530,-7.67274570,-510.000000,25.000000
-253.86595154,111.76967621,-7.66748333,-510.000000,25.000000
-253.84655762,111.81774139,-7.66172457,-510.000000,25.000000
-253.82746887,111.86502838,-7.65564585,-510.000000,25.000000
-253.80809021,111.91299438,-7.64905930,-510.000000,25.000000
-253.78817749,111.96257782,-7.66037750,-510.000000,25.000000
-253.76788330,112.01310730,-7.67113495,-510.000000,25.000000
-253.74780273,112.06312561,-7.68155289,-510.000000,25.000000
-253.72732544,112.11407471,-7.69139147,-510.000000,25.000000
-253.70599365,112.16743469,-7.71901941,-510.000000,25.000000
-253.68612671,112.21659088,-7.70966244,-510.000000,25.000000
-253.66658020,112.26494598,-7.70002174,-510.000000,25.000000
-253.64677429,112.31395721,-7.68980598,-510.000000,25.000000
-253.62728882,112.36215210,-7.67931986,-510.000000,25.000000
-253.60752869,112.41100311,-7.66824627,-510.000000,25.000000
-253.58670044,112.46278381,-7.67486572,-510.000000,25.000000
-253.56697083,112.51159668,-7.66290522,-510.000000,25.000000
-253.54603577,112.56359863,-7.66858339,-510.000000,25.000000
-253.52601624,112.61308289,-7.65553951,-510.000000,25.000000
-253.50633240,112.66173553,-7.64225388,-510.000000,25.000000
-253.48638916,112.71101379,-7.62833166,-510.000000,25.000000
-253.46505737,112.76401520,-7.63191271,-510.000000,25.000000
-253.44514465,112.81320953,-7.61707592,-510.000000,25.000000
-253.42373657,112.86639404,-7.61967278,-510.000000,25.000000
-253.40385437,112.91548157,-7.60392046,-510.000000,25.000000
-253.38237000,112.96882629,-7.60552835,-510.000000,25.000000
-253.36022949,113.02375793,-7.60612249,-510.000000,25.000000
-253.33804321,113.07883453,-7.60617018,-510.000000,25.000000
-253.31579590,113.13403320,-7.60566854,-510.000000,25.000000
-253.29348755,113.18936920,-7.60461473,-510.000000,25.000000
-253.27084351,113.24554443,-7.60272980,-510.000000,25.000000
-253.24615479,113.30704498,-7.61781883,-510.000000,25.000000
-253.22334290,113.36358643,-7.61474180,-510.000000,25.000000
-253.19839478,113.42571259,-7.62853909,-510.000000,25.000000
-253.17515564,113.48332977,-7.62394571,-510.000000,25.000000
-253.14965820,113.54678345,-7.63610554,-510.000000,25.000000
-253.12626648,113.60472870,-7.63026237,-510.000000,25.000000
-253.10052490,113.66876984,-7.64105940,-510.000000,25.000000
-253.07672119,113.72774506,-7.63361025,-510.000000,25.000000
-253.05317688,113.78606415,-7.62588596,-510.000000,25.000000
-253.02929688,113.84517670,-7.61719418,-510.000000,25.000000
-253.00286865,113.91090393,-7.62488842,-510.000000,25.000000
-252.97859192,113.97099304,-7.61450434,-510.000000,25.000000
-252.95133972,114.03867340,-7.61997795,-510.000000,25.000000
-252.92396545,114.10666656,-7.62465572,-510.000000,25.000000
-252.89646912,114.17497253,-7.62853241,-510.000000,25.000000
-252.87136841,114.23706055,-7.61449957,-510.000000,25.000000
-252.84338379,114.30654144,-7.61639690,-510.000000,25.000000
-252.81820679,114.36878967,-7.60090733,-510.000000,25.000000
-252.79003906,114.43869019,-7.60120106,-510.000000,25.000000
-252.76783752,114.49328613,-7.56783962,-510.000000,25.000000
-252.74235535,114.55622864,-7.54980755,-510.000000,25.000000
-252.71688843,114.61915588,-7.53106070,-510.000000,25.000000
-252.69142151,114.68205261,-7.51159620,-510.000000,25.000000
-252.65473938,114.77347565,-7.53728628,-510.000000,25.000000
-252.61802673,114.86495209,-7.56215572,-510.000000,25.000000
-252.58071899,114.95790100,-7.58522081,-510.000000,25.000000
-252.53967285,115.06031799,-7.62278843,-510.000000,25.000000
-252.50488281,115.14671326,-7.62679100,-510.000000,25.000000
-252.46990967,115.23355103,-7.62958002,-510.000000,25.000000
-252.43475342,115.32082367,-7.63114548,-510.000000,25.000000
-252.39547729,115.41851044,-7.64639854,-510.000000,25.000000
-252.35903931,115.50889587,-7.64365864,-510.000000,25.000000
-252.32273865,115.59894562,-7.64018536,-510.000000,25.000000
-252.28598022,115.69008636,-7.63480759,-510.000000,25.000000
-252.24935913,115.78086090,-7.62870359,-510.000000,25.000000
-252.21171570,115.87413025,-7.61940479,-510.000000,25.000000
-252.16966248,115.97854614,-7.62293625,-510.000000,25.000000
-252.12736511,116.08353424,-7.62481499,-510.000000,25.000000
-252.08483887,116.18907166,-7.62502718,-510.000000,25.000000
-252.04090881,116.29802704,-7.62083960,-510.000000,25.000000
-251.99707031,116.40676117,-7.61554337,-510.000000,25.000000
-251.95271301,116.51670074,-7.60774994,-510.000000,25.000000
-251.90846252,116.62637329,-7.59885120,-510.000000,25.000000
-251.85818481,116.75114441,-7.59850931,-510.000000,25.000000
-251.80761719,116.87658691,-7.59594059,-510.000000,25.000000
-251.75679016,117.00267029,-7.59112930,-510.000000,25.000000
-251.70568848,117.12937164,-7.58405828,-510.000000,25.000000
-251.64308167,117.28490448,-7.59613895,-510.000000,25.000000
-251.58003235,117.44152069,-7.60512829,-510.000000,25.000000
-251.51654053,117.59918213,-7.61099815,-510.000000,25.000000
-251.45262146,117.75783539,-7.61372519,-510.000000,25.000000
-251.37628174,117.94753265,-7.63207626,-510.000000,25.000000
-251.29446411,118.15098572,-7.65910196,-510.000000,25.000000
-251.21688843,118.34365082,-7.66896439,-510.000000,25.000000
-251.13377380,118.55020142,-7.68712711,-510.000000,25.000000
-251.03692627,118.79096985,-7.71540165,-510.000000,25.000000
-250.93922424,119.03374481,-7.73784733,-510.000000,25.000000
-250.84074402,119.27841949,-7.75440979,-510.000000,25.000000
-250.73597717,119.53873444,-7.77580261,-510.000000,25.000000
-250.63320923,119.79367828,-7.76999092,-510.000000,25.000000
-250.52976990,120.05017853,-7.75754881,-510.000000,25.000000
-250.42570496,120.30812836,-7.73842573,-510.000000,25.000000
-250.31532288,120.58180237,-7.72245121,-510.000000,25.000000
-258.27835083,101.12744904,-8.36668015,-510.000000,26.000000
-258.16284180,101.41490173,-8.36661625,-510.000000,26.000000
-258.04803467,101.70049286,-8.35954762,-510.000000,26.000000
-257.93395996,101.98409271,-8.34552479,-510.000000,26.000000
-257.82064819,102.26557922,-8.32460880,-510.000000,26.000000
-257.69403076,102.57904816,-8.25441265,-510.000000,26.000000
-257.57379150,102.87683105,-8.18932152,-510.000000,26.000000
-257.45495605,103.17089844,-8.11624527,-510.000000,26.000000
-257.33697510,103.46270752,-8.03739071,-510.000000,26.000000
-257.26470947,103.64259338,-8.04054451,-510.000000,26.000000
-257.19284058,103.82143402,-8.04007721,-510.000000,26.000000
-257.12139893,103.99919128,-8.03601456,-510.000000,26.000000
-257.05035400,104.17579651,-8.02838421,-510.000000,26.000000
-256.99154663,104.32236481,-8.03768539,-510.000000,26.000000
-256.93298340,104.46822357,-8.04430676,-510.000000,26.000000
-256.87472534,104.61334229,-8.04826736,-510.000000,26.000000
-256.81674194,104.75767517,-8.04958534,-510.000000,26.000000
-256.75042725,104.92202759,-8.01885319,-510.000000,26.000000
-256.68432617,105.08576965,-7.98591328,-510.000000,26.000000
-256.61904907,105.24732971,-7.94917297,-510.000000,26.000000
-256.55883789,105.39662933,-7.92371702,-510.000000,26.000000
-256.50970459,105.51879883,-7.91982269,-510.000000,26.000000
-256.46084595,105.64026642,-7.91392517,-510.000000,26.000000
-256.41226196,105.76099396,-7.90604019,-510.000000,26.000000
-256.36853027,105.86993408,-7.91016579,-510.000000,26.000000
-256.32135010,105.98698425,-7.89643002,-510.000000,26.000000
-256.27865601,106.09322357,-7.89573336,-510.000000,26.000000
-256.23205566,106.20878601,-7.87841511,-510.000000,26.000000
-256.18984985,106.31375885,-7.87437010,-510.000000,26.000000
-256.14874268,106.41587830,-7.86684656,-510.000000,26.000000
-256.11212158,106.50715637,-7.87248755,-510.000000,26.000000
-256.07144165,106.60817719,-7.86206341,-510.000000,26.000000
-256.03512573,106.69858551,-7.86503983,-510.000000,26.000000
-255.99577332,106.79618073,-7.85003567,-510.000000,26.000000
-255.96041870,106.88416290,-7.84929466,-510.000000,26.000000
-255.92152405,106.98054504,-7.83161545,-510.000000,26.000000
-255.88653564,107.06755066,-7.82839441,-510.000000,26.000000
-255.85231018,107.15261078,-7.82293606,-510.000000,26.000000
-255.82208252,107.22805023,-7.83182096,-510.000000,26.000000
-255.79191589,107.30329132,-7.83976889,-510.000000,26.000000
-255.76184082,107.37831879,-7.84678364,-510.000000,26.000000
-255.72875977,107.46040344,-7.83615398,-510.000000,26.000000
-255.69918823,107.53411102,-7.84077311,-510.000000,26.000000
-255.66999817,107.60682678,-7.84402657,-510.000000,26.000000
-255.64059448,107.68004608,-7.84686470,-510.000000,26.000000
-255.60842896,107.75975037,-7.83184385,-510.000000,26.000000
-255.57647705,107.83891296,-7.81582117,-510.000000,26.000000
-255.54472351,107.91754150,-7.79880476,-510.000000,26.000000
-255.51318359,107.99562073,-7.78080511,-510.000000,26.000000
-255.48245239,108.07165527,-7.76101685,-510.000000,26.000000
-255.45483398,108.14029694,-7.75715303,-510.000000,26.000000
-255.42448425,108.21533203,-7.73558378,-510.000000,26.000000
-255.39715576,108.28322601,-7.73007774,-510.000000,26.000000
-255.37052917,108.34931946,-7.72305107,-510.000000,26.000000
-255.34671021,108.40879822,-7.73237276,-510.000000,26.000000
-255.32028198,108.47436523,-7.72392702,-510.000000,26.000000
-255.29656982,108.53357697,-7.73195171,-510.000000,26.000000
-255.27629089,108.58460236,-7.75560188,-510.000000,26.000000
-255.25563049,108.63655090,-7.77912188,-510.000000,26.000000
-255.23519897,108.68793488,-7.80183744,-510.000000,26.000000
-255.21438599,108.74024200,-7.82440519,-510.000000,26.000000
-255.18597412,108.81025696,-7.79472113,-510.000000,26.000000
-255.16036987,108.87366486,-7.78144360,-510.000000,26.000000
-255.13491821,108.93670654,-7.76748276,-510.000000,26.000000
-255.10960388,108.99935150,-7.75284386,-510.000000,26.000000
-255.08264160,109.06569672,-7.71961594,-510.000000,26.000000
-255.05563354,109.13211823,-7.68592405,-510.000000,26.000000
-255.02919006,109.19714355,-7.65123415,-510.000000,26.000000
-255.00494385,109.25707245,-7.63359070,-510.000000,26.000000
-254.98333740,109.31084442,-7.63263130,-510.000000,26.000000
-254.96360779,109.36031342,-7.64899063,-510.000000,26.000000
-254.94412231,109.40917206,-7.66467476,-510.000000,26.000000
-254.92428589,109.45888519,-7.68015385,-510.000000,26.000000
-254.90498352,109.50724030,-7.69475222,-510.000000,26.000000
-254.88536072,109.55644226,-7.70914221,-510.000000,26.000000
-254.86596680,109.60501099,-7.72289324,-510.000000,26.000000
-254.84623718,109.65441895,-7.73642111,-510.000000,26.000000
-254.82501221,109.70713043,-7.73144674,-510.000000,26.000000
-254.80525208,109.75659943,-7.74407434,-510.000000,26.000000
-254.78573608,109.80541992,-7.75608778,-510.000000,26.000000
-254.76589966,109.85506439,-7.76784897,-510.000000,26.000000
-254.74200439,109.91353607,-7.72482777,-510.000000,26.000000
-254.71958923,109.96875000,-7.69941044,-510.000000,26.000000
-254.69764709,110.02276611,-7.67330742,-510.000000,26.000000
-254.67558289,110.07704926,-7.64683104,-510.000000,26.000000
-254.65533447,110.12726593,-7.63781071,-510.000000,26.000000
-254.63612366,110.17526245,-7.64660645,-510.000000,26.000000
-254.61717224,110.22260284,-7.65486145,-510.000000,26.000000
-254.59791565,110.27072144,-7.66282892,-510.000000,26.000000
-254.57891846,110.31817627,-7.67026711,-510.000000,26.000000
-254.55960083,110.36640930,-7.67740488,-510.000000,26.000000
-254.54055786,110.41395569,-7.68402529,-510.000000,26.000000
-254.52119446,110.46228790,-7.69033098,-510.000000,26.000000
-254.50210571,110.50992584,-7.69613123,-510.000000,26.000000
-254.48300171,110.55760956,-7.70152378,-510.000000,26.000000
-254.46386719,110.60533142,-7.70650959,-510.000000,26.000000
-254.44471741,110.65307617,-7.71108675,-510.000000,26.000000
-254.42518616,110.70137787,-7.69686031,-510.000000,26.000000
-254.40606689,110.74905396,-7.70061636,-510.000000,26.000000
-254.38722229,110.79602051,-7.70391655,-510.000000,26.000000
-254.36807251,110.84374237,-7.70686245,-510.000000,26.000000
-254.34844971,110.89219666,-7.69103193,-510.000000,26.000000
-254.32934570,110.93981934,-7.69315624,-510.000000,26.000000
-254.30986023,110.98789978,-7.67649364,-510.000000,26.000000
-254.29078674,111.03540802,-7.67779970,-510.000000,26.000000
-254.27169800,111.08291626,-7.67869949,-510.000000,26.000000
-254.25260925,111.13043976,-7.67919350,-510.000000,26.000000
-254.23352051,111.17795563,-7.67927980,-510.000000,26.000000
-254.21443176,111.22547913,-7.67896080,-510.000000,26.000000
-254.19532776,111.27298737,-7.67823553,-510.000000,26.000000
-254.17652893,111.31976318,-7.67712402,-510.000000,26.000000
-254.15742493,111.36725616,-7.67559242,-510.000000,26.000000
-254.13862610,111.41400146,-7.67368793,-510.000000,26.000000
-254.11952209,111.46146393,-7.67135000,-510.000000,26.000000
-254.10043335,111.50891113,-7.66860676,-510.000000,26.000000
-254.08135986,111.55632782,-7.66545773,-510.000000,26.000000
-254.06228638,111.60372162,-7.66190290,-510.000000,26.000000
-254.04292297,111.65181732,-7.65787935,-510.000000,26.000000
-254.02339172,111.70072937,-7.67182207,-510.000000,26.000000
-254.00347900,111.75061035,-7.68525696,-510.000000,26.000000
-253.98374939,111.79999542,-7.69832659,-510.000000,26.000000
-253.96426392,111.84834290,-7.69259930,-510.000000,26.000000
-253.94509888,111.89591980,-7.68654728,-510.000000,26.000000
-253.92564392,111.94418335,-7.67998600,-510.000000,26.000000
-253.90650940,111.99166107,-7.67311525,-510.000000,26.000000
-253.88708496,112.03981018,-7.66572332,-510.000000,26.000000
-253.86708069,112.08984375,-7.67620611,-510.000000,26.000000
-253.84764099,112.13801575,-7.66796160,-510.000000,26.000000
-253.82751465,112.18832397,-7.67755842,-510.000000,26.000000
-253.80778503,112.23722839,-7.66831684,-510.000000,26.000000
-253.78836060,112.28533173,-7.65879297,-510.000000,26.000000
-253.76867676,112.33409119,-7.64869738,-510.000000,26.000000
-253.74809265,112.38552094,-7.65634680,-510.000000,26.000000
-253.72840881,112.43424988,-7.64536858,-510.000000,26.000000
-253.70904541,112.48217010,-7.63413382,-510.000000,26.000000
-253.68942261,112.53072357,-7.62230301,-510.000000,26.000000
-253.67013550,112.57846832,-7.61023140,-510.000000,26.000000
-253.64878845,112.63171387,-7.61520910,-510.000000,26.000000
-253.62765503,112.68441010,-7.61987352,-510.000000,26.000000
-253.60615540,112.73799896,-7.62382793,-510.000000,26.000000
-253.58488464,112.79102325,-7.62747765,-510.000000,26.000000
-253.56497192,112.84023285,-7.61270475,-510.000000,26.000000
-253.54539490,112.88860321,-7.59771824,-510.000000,26.000000
-253.52557373,112.93757629,-7.58207226,-510.000000,26.000000
-253.50419617,112.99081421,-7.58379412,-510.000000,26.000000
-253.48023987,113.05087280,-7.60202503,-510.000000,26.000000
-253.45610046,113.11133575,-7.61961460,-510.000000,26.000000
-253.43179321,113.17221069,-7.63655901,-510.000000,26.000000
-253.40521240,113.23913574,-7.67022133,-510.000000,26.000000
-253.38455200,113.29010010,-7.65088034,-510.000000,26.000000
-253.36425781,113.34018707,-7.63135719,-510.000000,26.000000
-253.34371948,113.39083862,-7.61108541,-510.000000,26.000000
-253.32119751,113.44679260,-7.60780478,-510.000000,26.000000
-253.29804993,113.50429535,-7.60334587,-510.000000,26.000000
-253.27514648,113.56118011,-7.59860468,-510.000000,26.000000
-253.25192261,113.61887360,-7.59295702,-510.000000,26.000000
-253.22892761,113.67593384,-7.58703995,-510.000000,26.000000
-253.20532227,113.73451233,-7.57985926,-510.000000,26.000000
-253.18197632,113.79245758,-7.57240391,-510.000000,26.000000
-253.15830994,113.85118103,-7.56398821,-510.000000,26.000000
-253.13488770,113.90925598,-7.55531025,-510.000000,26.000000
-253.10803223,113.97623444,-7.56187248,-510.000000,26.000000
-253.08103943,114.04353333,-7.56764793,-510.000000,26.000000
-253.05392456,114.11115265,-7.57263279,-510.000000,26.000000
-253.02667236,114.17906952,-7.57681894,-510.000000,26.000000
-253.00175476,114.24076843,-7.56309938,-510.000000,26.000000
-252.97399902,114.30986786,-7.56532049,-510.000000,26.000000
-252.94584656,114.37996674,-7.56628704,-510.000000,26.000000
-252.91786194,114.44962311,-7.56683159,-510.000000,26.000000
-252.89572144,114.50396729,-7.53371000,-510.000000,26.000000
-252.87036133,114.56666565,-7.51593113,-510.000000,26.000000
-252.84838867,114.62056732,-7.48164034,-510.000000,26.000000
-252.82308960,114.68308258,-7.46252108,-510.000000,26.000000
-252.78674316,114.77412415,-7.48860502,-510.000000,26.000000
-252.75036621,114.86523438,-7.51386786,-510.000000,26.000000
-252.71339417,114.95780182,-7.53733635,-510.000000,26.000000
-252.67639160,115.05040741,-7.55998182,-510.000000,26.000000
-252.63821411,115.14588165,-7.57973385,-510.000000,26.000000
-252.59973145,115.24208069,-7.59807682,-510.000000,26.000000
-252.56094360,115.33897400,-7.61499643,-510.000000,26.000000
-252.51799011,115.44657135,-7.64541006,-510.000000,26.000000
-252.48164368,115.53700256,-7.64278793,-510.000000,26.000000
-252.44540405,115.62708282,-7.63943148,-510.000000,26.000000
-252.40872192,115.71826172,-7.63417244,-510.000000,26.000000
-252.37217712,115.80906677,-7.62818623,-510.000000,26.000000
-252.33042908,115.91307068,-7.63337708,-510.000000,26.000000
-252.28843689,116.01766968,-7.63692522,-510.000000,26.000000
-252.24620056,116.12283325,-7.63881826,-510.000000,26.000000
-252.19938660,116.23964691,-7.65304804,-510.000000,26.000000
-252.15544128,116.34893036,-7.64874268,-510.000000,26.000000
-252.11157227,116.45798492,-7.64332724,-510.000000,26.000000
-252.06719971,116.56823730,-7.63540888,-510.000000,26.000000
-252.01835632,116.68988037,-7.63986206,-510.000000,26.000000
-251.97264099,116.80332947,-7.62592268,-510.000000,26.000000
-251.92675781,116.91716766,-7.61004019,-510.000000,26.000000
-251.88070679,117.03137207,-7.59220028,-510.000000,26.000000
-251.83448792,117.14591980,-7.57239294,-510.000000,26.000000
-251.77697754,117.28903198,-7.57208729,-510.000000,26.000000
-251.71421814,117.44544220,-7.58159447,-510.000000,26.000000
-251.65101624,117.60289001,-7.58798885,-510.000000,26.000000
-251.58737183,117.76133728,-7.59124470,-510.000000,26.000000
-251.51141357,117.95082855,-7.61018848,-510.000000,26.000000
-251.42999268,118.15408325,-7.63782406,-510.000000,26.000000
-251.34757996,118.35971832,-7.66003227,-510.000000,26.000000
-251.26477051,118.56621552,-7.67863989,-510.000000,26.000000
-251.17890930,118.78005219,-7.68467522,-510.000000,26.000000
-251.09240723,118.99533081,-7.68566656,-510.000000,26.000000
-251.00532532,119.21197510,-7.68157148,-510.000000,26.000000
-250.91220093,119.44374084,-7.68313217,-510.000000,26.000000
-250.82127380,119.66948700,-7.65848207,-510.000000,26.000000
-250.72427368,119.91041565,-7.63844633,-510.000000,26.000000
-250.62673950,120.15254211,-7.61220026,-510.000000,26.000000
-250.52871704,120.39575958,-7.57969761,-510.000000,26.000000
-257.89630127,102.39270782,-8.23344326,-510.000000,27.000000
-257.77023315,102.70539856,-8.16212273,-510.000000,27.000000
-257.65054321,103.00238037,-8.09589767,-510.000000,27.000000
-257.52676392,103.30891418,-8.01023197,-510.000000,27.000000
-257.40936279,103.59973907,-7.93008804,-510.000000,27.000000
-257.34310913,103.76566315,-7.94381571,-510.000000,27.000000
-257.28247070,103.91790771,-7.96625853,-510.000000,27.000000
-257.22201538,104.06958008,-7.98577309,-510.000000,27.000000
-257.16177368,104.22063446,-8.00237942,-510.000000,27.000000
-257.10324097,104.36715698,-8.01159954,-510.000000,27.000000
-257.05007935,104.50061035,-8.03076458,-510.000000,27.000000
-256.99707031,104.63358307,-8.04756832,-510.000000,27.000000
-256.94424438,104.76604462,-8.06202316,-510.000000,27.000000
-256.88784790,104.90679932,-8.05776978,-510.000000,27.000000
-256.83148193,105.04747772,-8.05186844,-510.000000,27.000000
-256.77572632,105.18650818,-8.04269981,-510.000000,27.000000
-256.72479248,105.31383514,-8.04535580,-510.000000,27.000000
-256.66583252,105.46024323,-8.01561260,-510.000000,27.000000
-256.60729980,105.60542297,-7.98333883,-510.000000,27.000000
-256.54925537,105.74933624,-7.94856071,-510.000000,27.000000
-256.49630737,105.88093567,-7.92528057,-510.000000,27.000000
-256.44915771,105.99829865,-7.91184092,-510.000000,27.000000
-256.40649414,106.10486603,-7.91143513,-510.000000,27.000000
-256.36434937,106.21011353,-7.90874052,-510.000000,27.000000
-256.32211304,106.31555176,-7.90509462,-510.000000,27.000000
-256.28097534,106.41812134,-7.89795303,-510.000000,27.000000
-256.24005127,106.52008057,-7.88929749,-510.000000,27.000000
-256.19937134,106.62141418,-7.87913990,-510.000000,27.000000
-256.15890503,106.72210693,-7.86749077,-510.000000,27.000000
-256.12783813,106.80021667,-7.88260174,-510.000000,27.000000
-256.10058594,106.86925507,-7.91237450,-510.000000,27.000000
-256.07357788,106.93764496,-7.94077873,-510.000000,27.000000
-256.04620361,107.00691223,-7.96894693,-510.000000,27.000000
-256.00372314,107.11193848,-7.93372536,-510.000000,27.000000
-255.96548462,107.20681763,-7.91245604,-510.000000,27.000000
-255.92752075,107.30097198,-7.88987255,-510.000000,27.000000
-255.88983154,107.39437866,-7.86598778,-510.000000,27.000000
